ply
format ascii 1.0
element vertex 617
property float x
property float y
property float z
property uchar red
property uchar green
property uchar blue
end_header
0.114028520882129669 0.000112476569483987987 0.256787210702896118 146 161 146
0.195490762591362 0.000169157618074677885 0.665310680866241455 184 115 17
0.285584390163421631 0.000128043247968889773 0.518192410469055176 184 115 17
0.341945022344589233 0.000145090612932108343 0.672925412654876709 184 115 17
0.233917713165283203 0.000160958574269898236 0.656436383724212646 184 115 17
0.369604140520095825 5.3655705414712429e-05 0.173014536499977112 146 161 146
0.36948847770690918 0.000167048419825732708 0.827169179916381836 184 115 17
0.26567232608795166 0.000165423727594316006 0.71396028995513916 184 115 17
0.0711541622877120972 0.000105916857137344778 0.176056042313575745 146 161 146
0.0710396021604537964 0.000218236818909645081 0.824022114276885986 201 192 170
0.438296675682067871 0.000129621301311999559 0.680036962032318115 184 115 17
0.496784836053848267 8.01521819084882736e-05 0.453101128339767456 184 115 17
0.13362690806388855 0.00013808977382723242 0.42417597770690918 184 115 17
0.0995578542351722717 0.000155963658471591771 0.493232309818267822 184 115 17
0.23078782856464386 0.000142554461490362883 0.547115147113800049 184 115 17
0.273408472537994385 0.000159972856636159122 0.69024658203125 184 115 17
0.211853578686714172 0.000191146566066890955 0.808551549911499023 184 115 17
0.211962655186653137 8.41986475279554725e-05 0.191576465964317322 146 161 146
0.176881566643714905 6.52398521197028458e-05 0.0470978431403636932 146 161 146
0.176721394062042236 0.000222274145926348865 0.953017771244049072 184 115 17
0.35488283634185791 0.000158350929268635809 0.762376904487609863 184 115 17
0.354975581169128418 6.74198163324035704e-05 0.237801671028137207 146 161 146
0.359914124011993408 0.000110972301627043635 0.494036763906478882 184 115 17
0.246053159236907959 9.60070392466150224e-05 0.29380682110786438 146 161 146
0.195397749543190002 0.000162619413458742201 0.627492547035217285 184 115 17
0.286654055118560791 0.000170023762620985508 0.761487722396850586 184 115 17
0.286744415760040283 7.93952349340543151e-05 0.238655969500541687 146 161 146
0.107129529118537903 0.000133489971631206572 0.371133238077163696 184 115 17
0.480560004711151123 0.000111196684883907437 0.615998685359954834 184 115 17
0.479835867881774902 9.84440193860791624e-05 0.541692137718200684 184 115 17
0.310725867748260498 9.61758778430521488e-05 0.359465152025222778 146 161 146
0.17657296359539032 0.000141942713526077569 0.489360898733139038 184 115 17
0.0103532010689377785 8.77440834301523864e-05 0.010388311930000782 146 161 146
0.0101800663396716118 0.000257494801189750433 0.989668369293212891 201 192 170
0.49620819091796875 3.53971836375421844e-06 0.0104742245748639107 164 16 104
0.496035069227218628 0.000173290420207194984 0.989754259586334229 184 115 17
0.104991987347602844 0.000119628159154672176 0.289013385772705078 146 161 146
0.104949921369552612 0.000192794264876283705 0.711136102676391602 13 227 200
0.3031654953956604 3.70065390598028898e-05 0.0104992762207984924 146 161 146
0.302992373704910278 0.000206736716791056097 0.989660918712615967 184 115 17
0.480000436305999756 4.62584648630581796e-05 0.240748673677444458 184 115 17
0.479908734560012817 0.000136175542138516903 0.759474098682403564 184 115 17
0.0649354308843612671 0.000193927597138099372 0.677653849124908447 13 227 200
0.064998231828212738 0.000132350905914790928 0.322422146797180176 146 161 146
0.345333784818649292 0.00013257356476970017 0.604092061519622803 184 115 17
0.372460216283798218 0.000116351271572057158 0.537621438503265381 184 115 17
0.161421999335289001 7.40039249649271369e-05 0.0822038128972053528 146 161 146
0.161274254322052002 0.000218866553041152656 0.917906284332275391 201 192 170
0.0416512228548526764 0.000102147510915528983 0.124798938632011414 146 161 146
0.0415185391902923584 0.000232235717703588307 0.875268816947937012 201 192 170
0.278857499361038208 0.000181253126356750727 0.818482637405395508 184 115 17
0.278970092535018921 7.08663574187085032e-05 0.181669041514396667 146 161 146
0.299316287040710449 6.78847427479922771e-05 0.184815078973770142 146 161 146
0.299204796552658081 0.000177182068000547588 0.815343797206878662 184 115 17
0.384866267442703247 3.91658286389429122e-05 0.104673512279987335 146 161 146
0.384726434946060181 0.00017625225882511586 0.895515620708465576 184 115 17
0.272699564695358276 0.000104821199784055352 0.371315211057662964 146 161 146
0.215210616588592529 0.0001531356101622805 0.592587828636169434 184 115 17
0.163408547639846802 9.44815183174796402e-05 0.202345401048660278 146 161 146
0.163303285837173462 0.000197693021618761122 0.797765433788299561 184 115 17
0.235994055867195129 0.000156609370606020093 0.633418440818786621 184 115 17
0.482063829898834229 6.5801505115814507e-05 0.355574816465377808 184 115 17
0.447779268026351929 0.000132743167341686785 0.707534313201904297 184 115 17
0.448430240154266357 6.0763279179809615e-05 0.292864948511123657 184 115 17
0.0724630281329154968 9.90386615740135312e-05 0.137678265571594238 146 161 146
0.0723349004983901978 0.000224663686822168529 0.862400352954864502 201 192 170
0.418324708938598633 0.000176136702066287398 0.928453028202056885 184 115 17
0.418476194143295288 2.76334321824833751e-05 0.071748003363609314 146 161 146
0.368035763502120972 7.70100959925912321e-05 0.306199610233306885 146 161 146
0.312190771102905273 0.000158108232426457107 0.7182769775390625 184 115 17
0.255791902542114258 0.000209612975595518947 0.959047973155975342 184 115 17
0.255954176187515259 5.04929557791911066e-05 0.0410955622792243958 146 161 146
0.481490194797515869 0.000125636215670965612 0.700244426727294922 184 115 17
0.130297631025314331 9.88615356618538499e-05 0.194501101970672607 146 161 146
0.130189597606658936 0.000204790514544583857 0.805598020553588867 201 192 170
0.326308965682983398 9.82622659648768604e-05 0.387089371681213379 146 161 146
0.340184897184371948 8.5318468336481601e-05 0.326282680034637451 146 161 146
0.113010741770267487 0.000142953722388483584 0.431620895862579346 184 115 17
0.478441447019577026 1.8900656868936494e-05 0.0813362002372741699 164 16 104
0.478293389081954956 0.000164083510753698647 0.918886065483093262 184 115 17
0.17512039840221405 0.000153945074998773634 0.557161092758178711 184 115 17
0.455713748931884766 8.44620735733769834e-05 0.436890631914138794 184 115 17
0.00972415413707494736 0.000255570048466324806 0.97810673713684082 201 192 170
0.496499091386795044 0.0001712082012090832 0.978204011917114258 184 115 17
0.496668159961700439 5.46180399396689609e-06 0.0220246054232120514 164 16 104
0.00989320036023855209 8.98275684448890388e-05 0.0219498258084058762 146 161 146
0.245985537767410278 0.000167540303664281964 0.706482589244842529 184 115 17
0.0473886094987392426 9.81334887910634279e-05 0.107376627624034882 146 161 146
0.047249767929315567 0.000234262101002968848 0.892693102359771729 201 192 170
0.136443048715591431 0.000164197583217173815 0.577633321285247803 184 115 17
0.115341730415821075 0.000156615758896805346 0.512781620025634766 184 115 17
0.416011273860931396 7.81552225816994905e-05 0.360790878534317017 146 161 146
0.188866913318634033 0.000178215690539218485 0.710950314998626709 184 115 17
0.362580090761184692 0.000181047420483082533 0.901033222675323486 184 115 17
0.362721860408782959 4.20467695221304893e-05 0.0991480648517608643 146 161 146
0.482088655233383179 7.51046827645041049e-05 0.409278512001037598 184 115 17
0.224100053310394287 0.000102769343357067555 0.310867965221405029 146 161 146
0.458561599254608154 8.76017147675156593e-05 0.457854568958282471 184 115 17
0.165207773447036743 6.99976881151087582e-05 0.0628744363784790039 146 161 146
0.165053188800811768 0.000221561742364428937 0.937236964702606201 201 192 170
0.142597705125808716 0.000186811754247173667 0.714271783828735352 201 192 170
0.496317565441131592 9.74160284386016428e-05 0.55224531888961792 184 115 17
0.238459676504135132 8.85664339875802398e-05 0.24328005313873291 146 161 146
0.238368690013885498 0.00017759112233761698 0.756857156753540039 184 115 17
0.418111711740493774 0.000100736433523707092 0.493184208869934082 184 115 17
0.475976854562759399 4.89032499899622053e-05 0.251984655857086182 184 115 17
0.475889116525650024 0.000134924746816977859 0.748236715793609619 184 115 17
0.123637296259403229 0.000125884325825609267 0.343759715557098389 146 161 146
0.213282883167266846 0.000168751765158958733 0.680764198303222656 184 115 17
0.289748668670654297 0.000158982700668275356 0.700876474380493164 184 115 17
0.373881101608276367 0.000131318796775303781 0.625404477119445801 184 115 17
0.1126517653465271 0.000122327401186339557 0.312249064445495605 146 161 146
0.112580679357051849 0.000187378624104894698 0.687520265579223633 13 227 200
0.435630679130554199 4.23411474912427366e-05 0.173768311738967896 146 161 146
0.435515284538269043 0.000155476576765067875 0.826438784599304199 184 115 17
0.383027583360671997 0.000118051379104144871 0.558000266551971436 184 115 17
0.228585109114646912 0.000134488800540566444 0.498373508453369141 184 115 17
0.334160983562469482 4.44834731752052903e-05 0.0846417844295501709 146 161 146
0.334014087915420532 0.000188511476153507829 0.915529370307922363 184 115 17
0.462138235569000244 7.06065984559245408e-05 0.3633708655834198 184 115 17
0.202446311712265015 5.42353882337920368e-05 0.0091718798503279686 146 161 146
0.202272728085517883 0.000224419592996127903 0.990952730178833008 184 115 17
0.0778810158371925354 0.000154100940562784672 0.460803866386413574 184 115 17
0.434261471033096313 1.90891605598153546e-05 0.0382360778748989105 146 161 146
0.434098184108734131 0.000179211463546380401 0.961970508098602295 184 115 17
0.264759480953216553 0.000139705589390359819 0.564654886722564697 184 115 17
0.350481808185577393 0.000128245883388444781 0.584270477294921875 184 115 17
0.246556639671325684 0.000143077617394737899 0.565905332565307617 184 115 17
0.412423789501190186 0.000172998159541748464 0.90444183349609375 184 115 17
0.41256675124168396 3.28188398270867765e-05 0.0957570821046829224 146 161 146
0.16071261465549469 0.000175956534803844988 0.669755816459655762 184 115 17
0.312125235795974731 7.57216766942292452e-05 0.242845043540000916 146 161 146
0.312047123908996582 0.000164898941875435412 0.757315337657928467 184 115 17
0.223141565918922424 0.000168530154041945934 0.689346015453338623 184 115 17
0.417709201574325562 7.21870965207926929e-05 0.328053325414657593 146 161 146
0.00800913479179143906 0.000195829125004820526 0.631689190864562988 201 192 170
0.203137263655662537 0.000152233013068325818 0.575304388999938965 184 115 17
0.42108684778213501 9.61997284321114421e-05 0.469983279705047607 146 161 146
0.329952061176300049 5.7533710787538439e-05 0.155731365084648132 146 161 146
0.329830318689346313 0.000176915797055698931 0.844438314437866211 184 115 17
0.176281377673149109 0.000218419227167032659 0.930334925651550293 184 115 17
0.176433518528938293 6.92486792104318738e-05 0.0697804391384124756 146 161 146
0.0222483258694410324 0.000120564487588126212 0.21165764331817627 146 161 146
0.0221463590860366821 0.000220538931898772717 0.788403213024139404 201 192 170
0.136839747428894043 0.000182577947271056473 0.684083938598632812 184 115 17
0.269599467515945435 0.000185697048436850309 0.834864258766174316 184 115 17
0.26971784234046936 6.96304632583633065e-05 0.165284141898155212 146 161 146
0.0680624023079872131 0.00013862493506167084 0.361687719821929932 184 115 17
0.0679374933242797852 0.000186538338311947882 0.638020753860473633 184 115 17
0.450001358985900879 8.37196930660866201e-05 0.426893711090087891 184 115 17
0.0720678418874740601 0.000241972404182888567 0.962003648281097412 201 192 170
0.0722311884164810181 8.18164116935804486e-05 0.038074880838394165 146 161 146
0.256512820720672607 6.46493426756933331e-05 0.123335979878902435 146 161 146
0.256379604339599609 0.000195257918676361442 0.876807749271392822 184 115 17
0.287706971168518066 0.000110146560473367572 0.417052328586578369 146 161 146
0.127116009593009949 0.000134501766297034919 0.3969612717628479 184 115 17
0.433937937021255493 0.000113038309791591018 0.579994440078735352 184 115 17
0.319483190774917603 3.85421772080007941e-05 0.0356804169714450836 146 161 146
0.319318979978561401 0.000199543443159200251 0.964485585689544678 184 115 17
0.0828988701105117798 0.000114769252832047641 0.23888067901134491 146 161 146
0.0828065276145935059 0.000205309595912694931 0.761201620101928711 13 227 200
0.0253275875002145767 0.000216750428080558777 0.769725561141967773 201 192 170
0.025422949343919754 0.000123251447803340852 0.230336442589759827 146 161 146
0.385797023773193359 7.28347076801583171e-05 0.29987218976020813 146 161 146
0.327592939138412476 0.000130319313029758632 0.573341131210327148 184 115 17
0.348830431699752808 2.8671634936472401e-05 0.00808031763881444931 146 161 146
0.34865647554397583 0.000199243237148039043 0.992096066474914551 184 115 17
0.185620427131652832 0.000189473881619051099 0.77266240119934082 184 115 17
0.185716927051544189 9.49665336520411074e-05 0.227456226944923401 146 161 146
0.257881224155426025 9.15393102332018316e-05 0.279858410358428955 146 161 146
0.258064448833465576 0.000167768797837197781 0.719882071018218994 184 115 17
0.4262065589427948 8.1038793723564595e-05 0.387626022100448608 146 161 146
0.0265305601060390472 0.000162955082487314939 0.460532307624816895 184 115 17
0.0219906605780124664 9.07818030100315809e-05 0.0395553149282932281 146 161 146
0.0218278393149375916 0.000250421464443206787 0.960505425930023193 201 192 170
0.343663930892944336 8.29764758236706257e-05 0.316249161958694458 146 161 146
0.279489219188690186 0.000110179207695182413 0.409021496772766113 146 161 146
0.361175388097763062 8.98680082173086703e-05 0.37352752685546875 146 161 146
0.138448223471641541 0.00013210282486397773 0.394453763961791992 184 115 17
0.321914583444595337 9.32161128730513155e-05 0.353578150272369385 146 161 146
0.111603468656539917 0.000102786463685333729 0.198450282216072083 146 161 146
0.111496821045875549 0.0002073451760224998 0.801642239093780518 13 227 200
0.457648307085037231 0.000114552844024728984 0.612447738647460938 184 115 17
0.31224021315574646 0.000168956088600680232 0.780918002128601074 184 115 17
0.312339514493942261 7.15944479452446103e-05 0.219245463609695435 146 161 146
0.486687153577804565 7.08994339220225811e-05 0.389613747596740723 184 115 17
0.375214189291000366 0.000168210317497141659 0.839600026607513428 184 115 17
0.375334233045578003 5.05083735333755612e-05 0.160585716366767883 146 161 146
0.332306236028671265 0.000103421640233136714 0.422857016324996948 146 161 146
0.169184282422065735 0.000146531761856749654 0.5084494948387146 184 115 17
0.483087837696075439 5.6822182159521617e-06 0.00971368048340082169 164 16 104
0.0234737154096364975 8.53387609822675586e-05 0.00963255297392606735 146 161 146
0.482914447784423828 0.000175695793586783111 0.990510165691375732 184 115 17
0.0233003143221139908 0.000255352293606847525 0.990428745746612549 201 192 170
0.457658827304840088 7.67817618907429278e-05 0.394521057605743408 184 115 17
0.169472828507423401 0.000113229398266412318 0.31658509373664856 146 161 146
0.100797295570373535 0.000235122861340641975 0.951216697692871094 201 192 170
0.100956827402114868 7.8708319051656872e-05 0.0488720349967479706 146 161 146
0.212933316826820374 0.000113230569695588201 0.360060036182403564 146 161 146
0.128521561622619629 0.000114819617010653019 0.284802079200744629 146 161 146
0.128399476408958435 0.000189395257621072233 0.714977681636810303 201 192 170
0.143189415335655212 0.000219057634240016341 0.900920689105987549 201 192 170
0.143331170082092285 8.00825291662476957e-05 0.0991829857230186462 146 161 146
0.137317627668380737 0.000118602976726833731 0.315429508686065674 146 161 146
0.40671810507774353 4.51613486802671105e-05 0.16112305223941803 146 161 146
0.40659824013710022 0.000162678930792026222 0.839073777198791504 184 115 17
0.216298490762710571 0.000160012423293665051 0.633354783058166504 184 115 17
0.36919105052947998 0.000104046594060491771 0.463354349136352539 184 115 17
0.480980336666107178 0.000132172179291956127 0.73744666576385498 184 115 17
0.481076925992965698 4.98954068461898714e-05 0.262810289859771729 184 115 17
0.374704807996749878 0.000133638764964416623 0.639614462852478027 184 115 17
0.0229342188686132431 0.000186449455213733017 0.592496693134307861 184 115 17
0.0755096003413200378 0.000132715751533396542 0.335040539503097534 146 161 146
0.0754481330513954163 0.000189913727808743715 0.665008544921875 13 227 200
0.125475481152534485 7.99380140961147845e-05 0.0804903134703636169 146 161 146
0.125327125191688538 0.000225392490392550826 0.919607102870941162 201 192 170
0.0211775992065668106 0.000235014260397292674 0.870956301689147949 201 192 170
0.0213087573647499084 0.000106419887742958963 0.129104256629943848 146 161 146
0.184555128216743469 9.18892037589102983e-05 0.208538204431533813 146 161 146
0.184452056884765625 0.000192955048987641931 0.791580080986022949 184 115 17
0.484430104494094849 0.000170281709870323539 0.960787177085876465 184 115 17
0.484593003988265991 1.05727531263255514e-05 0.0394372530281543732 164 16 104
0.230559468269348145 6.35948235867545009e-05 0.0912934839725494385 146 161 146
0.230414927005767822 0.000205310439923778176 0.908841073513031006 184 115 17
0.216180995106697083 0.000219156179809942842 0.974493861198425293 184 115 17
0.216348752379417419 5.4678876040270552e-05 0.025635669007897377 146 161 146
0.434274077415466309 2.23466377065051347e-05 0.0570441596210002899 146 161 146
0.434117436408996582 0.000175948458490893245 0.943162441253662109 184 115 17
0.376630723476409912 4.67339377792086452e-05 0.140104100108146667 146 161 146
0.376503437757492065 0.000171536608831956983 0.860082089900970459 184 115 17
0.425117969512939453 0.000122065423056483269 0.623258888721466064 184 115 17
0.302208483219146729 0.000146348465932533145 0.640439629554748535 184 115 17
0.381292253732681274 0.000163620570674538612 0.819196581840515137 184 115 17
0.381405085325241089 5.29925709997769445e-05 0.180991336703300476 146 161 146
0.485700309276580811 0.000154965324327349663 0.873682796955108643 184 115 17
0.485832393169403076 2.54541992035228759e-05 0.126542061567306519 164 16 104
0.443582713603973389 0.000104053055110853165 0.537796437740325928 184 115 17
0.391833752393722534 8.98948783287778497e-05 0.404346346855163574 146 161 146
0.209717541933059692 0.000121493540063966066 0.404520601034164429 146 161 146
0.0725204870104789734 0.000238593478570692241 0.942960143089294434 201 192 170
0.0726770982146263123 8.50396172609180212e-05 0.0571185797452926636 146 161 146
0.384864270687103271 0.00014295839355327189 0.703549444675445557 184 115 17
0.439624130725860596 0.000122953584650531411 0.642892241477966309 184 115 17
0.414191097021102905 5.80609557800926268e-05 0.243027448654174805 146 161 146
0.414100199937820435 0.000147183978697285056 0.757172048091888428 184 115 17
0.166665688157081604 0.000168166370713151991 0.630761027336120605 184 115 17
0.332495301961898804 0.000123820005683228374 0.540743708610534668 184 115 17
0.253207653760910034 0.000106789142591878772 0.363174796104431152 146 161 146
0.39234691858291626 0.000101859812275506556 0.473896682262420654 184 115 17
0.372048377990722656 0.00017415065667591989 0.87070918083190918 184 115 17
0.372179418802261353 4.56634661532007158e-05 0.129475459456443787 146 161 146
0.241180762648582458 0.000111513567389920354 0.378405451774597168 146 161 146
0.300866872072219849 4.15963986597489566e-05 0.0346835069358348846 146 161 146
0.300702303647994995 0.000202942144824191928 0.965475916862487793 184 115 17
0.365386754274368286 7.07559811417013407e-05 0.267464160919189453 146 161 146
0.365304499864578247 0.000151404194184578955 0.732718110084533691 184 115 17
0.305682390928268433 0.000196966124349273741 0.935975551605224609 184 115 17
0.305836528539657593 4.58479989902116358e-05 0.0641855746507644653 146 161 146
0.182960912585258484 0.000129474938148632646 0.423811554908752441 184 115 17
0.181534439325332642 0.000147446946357376873 0.526082396507263184 184 115 17
0.414125561714172363 0.00013611426402349025 0.693325698375701904 184 115 17
0.129428908228874207 8.96732890396378934e-05 0.140616491436958313 146 161 146
0.12930181622505188 0.000214283179957419634 0.859482288360595703 201 192 170
0.222623273730278015 5.93554323131684214e-05 0.058894813060760498 146 161 146
0.222467273473739624 0.000212302693398669362 0.941236913204193115 184 115 17
0.423355847597122192 5.53186437173280865e-05 0.236370831727981567 146 161 146
0.423262596130371094 0.000146749982377514243 0.763831913471221924 184 115 17
0.368319690227508545 0.000144118370371870697 0.693695008754730225 184 115 17
0.181771248579025269 0.000196482273167930543 0.809250712394714355 184 115 17
0.181880578398704529 8.929012983571738e-05 0.190866649150848389 146 161 146
0.191035673022270203 9.2364163720048964e-05 0.217760369181632996 146 161 146
0.190935865044593811 0.00019023321510758251 0.782360196113586426 184 115 17
0.0239874962717294693 0.000195003231056034565 0.642904996871948242 201 192 170
0.496394336223602295 0.000117836054414510727 0.670144617557525635 184 115 17
0.405166566371917725 0.000182369447429664433 0.951255202293395996 184 115 17
0.405326098203659058 2.59601983998436481e-05 0.0489411130547523499 146 161 146
0.327526956796646118 0.000121161450806539506 0.520434737205505371 184 115 17
0.282337605953216553 0.000123573729069903493 0.489156156778335571 184 115 17
0.169251441955566406 8.44817695906385779e-05 0.150491252541542053 146 161 146
0.16912783682346344 0.000205670672585256398 0.849621593952178955 184 115 17
0.365802735090255737 0.000129429055959917605 0.606420934200286865 184 115 17
0.33207365870475769 6.90238230163231492e-05 0.224150687456130981 146 161 146
0.331976085901260376 0.000164686105563305318 0.776019752025604248 184 115 17
0.200108721852302551 0.000179556547664105892 0.729930758476257324 184 115 17
0.200135350227355957 9.98766408883966506e-05 0.270208299160003662 146 161 146
0.0614807270467281342 0.000210314072319306433 0.768747687339782715 13 227 200
0.0615757405757904053 0.000117156334454193711 0.231327131390571594 146 161 146
0.471734344959259033 9.22123435884714127e-05 0.497632712125778198 184 115 17
0.0593462102115154266 0.000199625239474698901 0.704938769340515137 13 227 200
0.0594186596572399139 0.00012858894478995353 0.295135289430618286 146 161 146
0.329951316118240356 0.000154780471348203719 0.716839611530303955 184 115 17
0.353948831558227539 0.000170441970112733543 0.831207454204559326 184 115 17
0.354065895080566406 5.56483100808691233e-05 0.168970793485641479 146 161 146
0.0924317315220832825 0.000146826307172887027 0.433382868766784668 184 115 17
0.19674113392829895 0.000115855247713625431 0.359009265899658203 146 161 146
0.194320380687713623 0.000118281401228159666 0.37058684229850769 146 161 146
0.276345133781433105 0.000136514383484609425 0.557829558849334717 184 115 17
0.307968407869338989 0.000136067450512200594 0.586879611015319824 184 115 17
0.0353634878993034363 0.000222829738049767911 0.814840614795684814 201 192 170
0.0354747995734214783 0.000113690686703193933 0.185224965214729309 146 161 146
0.486543357372283936 6.82183599565178156e-05 0.374000251293182373 184 115 17
0.398033857345581055 5.27963093190919608e-05 0.196490630507469177 146 161 146
0.397926509380340576 0.000158051960170269012 0.803703129291534424 184 115 17
0.327003568410873413 0.000142432836582884192 0.642646074295043945 184 115 17
0.304008573293685913 0.000114592818135861307 0.45901152491569519 146 161 146
0.220626398921012878 0.000118669166113249958 0.399134933948516846 146 161 146
0.402913004159927368 9.86233717412687838e-05 0.465790539979934692 146 161 146
0.343887835741043091 4.28955172537826002e-05 0.0852079540491104126 146 161 146
0.343741148710250854 0.000186727847903966904 0.9149666428565979 184 115 17
0.212434574961662292 0.000106277846498414874 0.319444328546524048 146 161 146
0.184025466442108154 0.000142040124046616256 0.497376769781112671 184 115 17
0.0525337867438793182 0.000203864547074772418 0.722585737705230713 13 227 200
0.0526124797761440277 0.000126709899632260203 0.277485907077789307 146 161 146
0.349868565797805786 0.000190341874258592725 0.941947877407073975 184 115 17
0.350024819374084473 3.7155932659516111e-05 0.0582288764417171478 146 161 146
0.185786500573158264 0.00013847221271134913 0.478551477193832397 184 115 17
0.181678950786590576 0.000172334344824776053 0.669826030731201172 184 115 17
0.20435960590839386 0.000134098270791582763 0.471890419721603394 184 115 17
0.352204352617263794 0.000142529563163407147 0.668409466743469238 184 115 17
0.0902539342641830444 0.000181108960532583296 0.629013955593109131 184 115 17
0.0820619091391563416 9.30430614971555769e-05 0.112684562802314758 146 161 146
0.0819249451160430908 0.000227333614020608366 0.887397468090057373 201 192 170
0.116833709180355072 0.000153202621731907129 0.494580179452896118 184 115 17
0.0207553710788488388 9.73744827206246555e-05 0.0763592496514320374 146 161 146
0.0206055641174316406 0.000244254712015390396 0.923701107501983643 201 192 170
0.153550311923027039 0.00016645826690364629 0.607787728309631348 184 115 17
0.336945623159408569 9.90047046798281372e-05 0.402011752128601074 146 161 146
0.0837734788656234741 0.00014155608369037509 0.394314199686050415 184 115 17
0.383675158023834229 0.000136367161758244038 0.664329111576080322 184 115 17
0.00869482103735208511 0.00013069401029497385 0.256548613309860229 146 161 146
0.00860872771590948105 0.000215104606468230486 0.743507444858551025 201 192 170
0.244066789746284485 8.32088117022067308e-05 0.217974931001663208 146 161 146
0.243967041373252869 0.000181006747880019248 0.782164394855499268 184 115 17
0.099918760359287262 0.000206381460884585977 0.784501492977142334 13 227 200
0.100019343197345734 0.000107764462882187217 0.21558690071105957 146 161 146
0.260838776826858521 7.35362264094874263e-05 0.178939566016197205 146 161 146
0.260725200176239014 0.000184868156793527305 0.821205675601959229 184 115 17
0.471414506435394287 0.000147445418406277895 0.816004931926727295 184 115 17
0.471526205539703369 3.79294287995435297e-05 0.184214800596237183 229 20 212
0.445484578609466553 0.000175054548890329897 0.949373722076416016 184 115 17
0.445643424987792969 1.93000560102518648e-05 0.0508368983864784241 146 161 146
0.0612662173807621002 0.000143145822221413255 0.380975633859634399 184 115 17
0.291489690542221069 0.000156564929056912661 0.688667416572570801 184 115 17
0.283388674259185791 0.000163072734721936285 0.718114674091339111 184 115 17
0.155018746852874756 0.000180285467649810016 0.689038634300231934 184 115 17
0.0571607016026973724 0.000162637370522134006 0.489334613084793091 184 115 17
0.0404101423919200897 0.000152526117744855583 0.414239674806594849 184 115 17
0.497031092643737793 4.54893852293025702e-05 0.25334477424621582 184 115 17
0.4969443678855896 0.000131040753331035376 0.746885240077972412 184 115 17
0.217212721705436707 0.000146974853123538196 0.559043049812316895 184 115 17
0.170725986361503601 0.000208871933864429593 0.869691193103790283 184 115 17
0.170856684446334839 8.07253090897575021e-05 0.130422204732894897 146 161 146
0.339013218879699707 8.89322400325909257e-05 0.345962077379226685 146 161 146
0.444306045770645142 3.77976539311930537e-05 0.156229496002197266 146 161 146
0.444184452295303345 0.000157014059368520975 0.843980669975280762 184 115 17
0.275184780359268188 0.000194049338460899889 0.888642847537994385 184 115 17
0.275322169065475464 5.93388867855537683e-05 0.111507557332515717 146 161 146
0.316055655479431152 9.72537673078477383e-05 0.371015250682830811 146 161 146
0.150688439607620239 0.000155341200297698379 0.540780365467071533 184 115 17
0.156261622905731201 0.000155840913066640496 0.549237966537475586 184 115 17
0.496676862239837646 0.000109454471385106444 0.622065901756286621 184 115 17
0.344086557626724243 0.000146670514368452132 0.684183359146118164 184 115 17
0.302332401275634766 7.85175361670553684e-05 0.249182432889938354 146 161 146
0.302261888980865479 0.000165494202519766986 0.750963032245635986 184 115 17
0.0607173070311546326 0.000241674933931790292 0.948934733867645264 201 192 170
0.0608760342001914978 8.60490617924369872e-05 0.0511398613452911377 146 161 146
0.239599838852882385 4.74807493446860462e-05 0.00735805463045835495 146 161 146
0.239425614476203918 0.000218296059756539762 0.992779731750488281 184 115 17
0.156414911150932312 0.000138820978463627398 0.451187044382095337 184 115 17
0.12456764280796051 0.000157913193106651306 0.529495298862457275 184 115 17
0.348182022571563721 0.000192760882782749832 0.954218626022338867 184 115 17
0.348342597484588623 3.53207688021939248e-05 0.0459575653076171875 146 161 146
0.252125859260559082 6.15828030277043581e-05 0.10125444084405899 146 161 146
0.251984864473342896 0.000199846428586170077 0.898887693881988525 184 115 17
0.394301086664199829 0.000103206315543502569 0.483620434999465942 184 115 17
0.155615434050559998 0.000161869611474685371 0.583376884460449219 184 115 17
0.328865796327590942 5.19409077242016792e-05 0.122374683618545532 146 161 146
0.328732222318649292 0.000182887175469659269 0.877794623374938965 184 115 17
0.0716237127780914307 0.000183528201887384057 0.62433934211730957 184 115 17
0.0415804274380207062 0.000127308288938365877 0.269904524087905884 146 161 146
0.0414990521967411041 0.00020709060481749475 0.730163216590881348 13 227 200
0.373237073421478271 3.42982275469694287e-05 0.0649564415216445923 146 161 146
0.373083233833312988 0.00018515324336476624 0.935228586196899414 184 115 17
0.217689529061317444 0.000145204394357278943 0.549304425716400146 184 115 17
0.212237074971199036 5.22186783200595528e-05 0.00732806418091058731 146 161 146
0.212062850594520569 0.00022304270532913506 0.992800056934356689 184 115 17
0.465146124362945557 9.03964537428691983e-05 0.480565756559371948 184 115 17
0.14048062264919281 0.000159993942361325026 0.557416856288909912 184 115 17
0.269996792078018188 5.72070784983225167e-05 0.0938808172941207886 146 161 146
0.269853144884109497 0.000198028123122639954 0.906267642974853516 184 115 17
0.282680660486221313 9.40940662985667586e-05 0.319403022527694702 146 161 146
0.294815152883529663 8.37450716062448919e-05 0.271826505661010742 146 161 146
0.293654471635818481 0.000162917553097940981 0.727486848831176758 184 115 17
0.468416780233383179 0.000103553458757232875 0.559752285480499268 184 115 17
0.384331732988357544 7.92988939792849123e-05 0.335704684257507324 146 161 146
0.259715437889099121 4.8092446377268061e-05 0.0310066677629947662 146 161 146
0.259549587965011597 0.000210710379178635776 0.969138205051422119 184 115 17
0.032736562192440033 0.000205913063837215304 0.714604794979095459 13 227 200
0.0328124351799488068 0.000131524066091515124 0.285459816455841064 146 161 146
0.335024744272232056 0.0001738949358696118 0.832203447818756104 184 115 17
0.335142165422439575 5.87548129260540009e-05 0.167968079447746277 146 161 146
0.292922824621200562 8.8889690232463181e-05 0.299618005752563477 146 161 146
0.0570816509425640106 0.000140777221531607211 0.363123595714569092 184 115 17
0.0566487573087215424 0.000188310528756119311 0.636955440044403076 184 115 17
0.277170687913894653 0.000160844079800881445 0.699036359786987305 184 115 17
0.45108833909034729 0.000145564117701724172 0.784820139408111572 184 115 17
0.451189011335372925 4.68581711174920201e-05 0.215392425656318665 146 161 146
0.0606946088373661041 0.000224644420086406171 0.850646793842315674 201 192 170
0.0608185827732086182 0.00010309345816494897 0.149427726864814758 146 161 146
0.054963771253824234 0.000166431069374084473 0.509026765823364258 184 115 17
0.438451677560806274 7.41299154469743371e-05 0.360009461641311646 146 161 146
0.333910465240478516 0.000143228797242045403 0.654146909713745117 184 115 17
0.196718961000442505 0.000142083896207623184 0.510325074195861816 184 115 17
0.178492650389671326 0.000223722279770299792 0.963145017623901367 184 115 17
0.178656384348869324 6.31771326879970729e-05 0.0369711853563785553 146 161 146
0.216945081949234009 0.000122485595056787133 0.417473554611206055 146 161 146
0.454387426376342773 9.95374066405929625e-05 0.52254796028137207 184 115 17
0.295881032943725586 0.000134621470351703465 0.566446900367736816 184 115 17
0.434586614370346069 0.000128609302919358015 0.670487105846405029 184 115 17
0.462828487157821655 7.76927481638267636e-05 0.404947906732559204 184 115 17
0.157322853803634644 0.000130148400785401464 0.402054786682128906 184 115 17
0.0622324012219905853 0.000184340286068618298 0.61963200569152832 184 115 17
0.143569454550743103 0.000223283816012553871 0.925685703754425049 201 192 170
0.143719956278800964 7.5723095505964011e-05 0.0744181349873542786 146 161 146
0.187341228127479553 0.000203071846044622362 0.852843165397644043 184 115 17
0.187465965747833252 8.07672040536999702e-05 0.147276178002357483 146 161 146
0.236556842923164368 0.000211752107134088874 0.95215219259262085 184 115 17
0.236716702580451965 5.50215663679409772e-05 0.0479845404624938965 146 161 146
0.486108154058456421 8.1384969234932214e-06 0.0269071198999881744 164 16 104
0.485940814018249512 0.00017219154688064009 0.973317801952362061 184 115 17
0.02069070003926754 8.8772474555298686e-05 0.0266614072024822235 146 161 146
0.0205233190208673477 0.000252882193308323622 0.973398923873901367 201 192 170
0.371804773807525635 0.000125063219456933439 0.587233424186706543 184 115 17
0.300387442111968994 4.36920417996589094e-05 0.046295754611492157 146 161 146
0.300226986408233643 0.00020101196423638612 0.953863441944122314 184 115 17
0.343170493841171265 0.000101240417279768735 0.42113766074180603 146 161 146
0.329534739255905151 0.000198410518351010978 0.968166172504425049 184 115 17
0.329700231552124023 3.61338570655789226e-05 0.0320033915340900421 146 161 146
0.316230744123458862 0.000145323923788964748 0.648552775382995605 184 115 17
0.364628702402114868 0.000184101052582263947 0.920701444149017334 184 115 17
0.364777445793151855 3.8281839806586504e-05 0.0794805511832237244 146 161 146
0.422676891088485718 6.84068218106403947e-05 0.311209887266159058 146 161 146
0.383952349424362183 6.91268796799704432e-05 0.276633173227310181 146 161 146
0.384583920240402222 0.000146506543387658894 0.723741769790649414 184 115 17
0.0799128487706184387 7.77497698436491191e-05 0.0222935751080513 146 161 146
0.0797439217567443848 0.00024337736249435693 0.977787673473358154 201 192 170
0.426415115594863892 0.000183293712325394154 0.977840542793273926 184 115 17
0.426584035158157349 1.76690609805518761e-05 0.0223633721470832825 146 161 146
0.409861236810684204 9.56961957854218781e-05 0.455850303173065186 146 161 146
0.276700228452682495 0.000178404967300593853 0.799891233444213867 184 115 17
0.276806235313415527 7.44634089642204344e-05 0.20025964081287384 146 161 146
0.24662385880947113 9.02789324754849076e-05 0.261326730251312256 146 161 146
0.246539324522018433 0.000173047621501609683 0.738813400268554688 184 115 17
0.170744284987449646 0.000138829345814883709 0.465567201375961304 184 115 17
0.00746575277298688889 0.000171882958966307342 0.492977499961853027 184 115 17
0.385477334260940552 3.05669964291155338e-05 0.0556698478758335114 146 161 146
0.385320186614990234 0.000184642296517267823 0.944519519805908203 184 115 17
0.0412278026342391968 0.00018414815713185817 0.59751516580581665 184 115 17
0.0182684268802404404 0.000190349950571544468 0.610335767269134521 184 115 17
0.396675676107406616 0.000187822195584885776 0.97422492504119873 184 115 17
0.39684334397315979 2.34491781156975776e-05 0.0259683933109045029 146 161 146
0.1105508953332901 0.00023737509036436677 0.973967254161834717 201 192 170
0.110718473792076111 7.30738756828941405e-05 0.0261249523609876633 146 161 146
0.0976033806800842285 0.000158071445184759796 0.50343930721282959 184 115 17
0.340619087219238281 0.000127008446725085378 0.56726604700088501 184 115 17
0.227837920188903809 0.000118663592729717493 0.406315535306930542 146 161 146
0.0541803091764450073 0.000143075536470860243 0.373482942581176758 184 115 17
0.0528919212520122528 0.000187007361091673374 0.625678718090057373 184 115 17
0.226447358727455139 6.25490501988679171e-05 0.0811466202139854431 146 161 146
0.226299241185188293 0.000207782184588722885 0.91898643970489502 184 115 17
0.444895625114440918 0.000118724194180686027 0.623761355876922607 184 115 17
0.156852990388870239 0.000136882648803293705 0.440441131591796875 184 115 17
0.426552027463912964 7.90651465649716556e-05 0.376583725214004517 146 161 146
0.120119906961917877 7.6743373938370496e-05 0.0567008815705776215 146 161 146
0.119963139295578003 0.000230444944463670254 0.943394601345062256 201 192 170
0.486151188611984253 1.6516491086804308e-05 0.0752907916903495789 164 16 104
0.486000984907150269 0.000163795673870481551 0.924934148788452148 184 115 17
0.209200352430343628 0.000109360800706781447 0.333998024463653564 146 161 146
0.130264833569526672 6.64760591462254524e-05 0.0076056881807744503 146 161 146
0.130090713500976562 0.000237198808463290334 0.992493391036987305 201 192 170
0.472532778978347778 0.000130337037262506783 0.718408882617950439 184 115 17
0.472146958112716675 5.49224023416172713e-05 0.282884299755096436 184 115 17
0.0757777541875839233 8.96078636287711561e-05 0.0865783616900444031 146 161 146
0.0756315514445304871 0.000232948659686371684 0.913501441478729248 201 192 170
0.0444220229983329773 0.000115163085865788162 0.202669441699981689 146 161 146
0.0443168766796588898 0.000218254965147934854 0.797399282455444336 201 192 170
0.0590174347162246704 9.95217706076800823e-05 0.12701784074306488 146 161 146
0.0588855370879173279 0.000228841789066791534 0.87305605411529541 201 192 170
0.16915525496006012 0.000165607372764497995 0.618485808372497559 184 115 17
0.410985410213470459 0.000144029443617910147 0.735855162143707275 184 115 17
0.411065787076950073 6.22958832536824048e-05 0.264336943626403809 146 161 146
0.460470020771026611 2.6817460820893757e-05 0.109041161835193634 146 161 146
0.460331737995147705 0.000162394324433989823 0.891174674034118652 184 115 17
0.431262850761413574 9.27016953937709332e-05 0.459977596998214722 184 115 17
0.198324650526046753 0.000129700463730841875 0.440479278564453125 184 115 17
0.144719526171684265 0.00012236756447236985 0.344554126262664795 146 161 146
0.399938672780990601 0.000105110455479007214 0.500245809555053711 184 115 17
0.483289539813995361 8.74757824931293726e-05 0.481860250234603882 184 115 17
0.0710927620530128479 0.000114340444270055741 0.224598288536071777 146 161 146
0.0709953680634498596 0.000209831559914164245 0.775479912757873535 201 192 170
0.216799676418304443 6.72067108098417521e-05 0.0983716621994972229 146 161 146
0.216657638549804688 0.00020646759367082268 0.901758015155792236 184 115 17
0.434604346752166748 9.55958967097103596e-05 0.480019092559814453 184 115 17
0.0446569621562957764 0.000165236298926174641 0.491824418306350708 184 115 17
0.328671842813491821 9.05490378499962389e-05 0.344947725534439087 146 161 146
0.300999075174331665 0.000154305133037269115 0.68513953685760498 184 115 17
0.481752663850784302 3.99994569306727499e-05 0.206387028098106384 184 115 17
0.481648802757263184 0.000141829310450702906 0.793836355209350586 184 115 17
0.0436732321977615356 0.000245614821324124932 0.954620659351348877 201 192 170
0.0438339710235595703 8.80166844581253827e-05 0.0454478971660137177 146 161 146
0.462867945432662964 0.000172965999809093773 0.954709351062774658 184 115 17
0.463028699159622192 1.53627897816477343e-05 0.0455073937773704529 164 16 104
0.00967107526957988739 0.000230825113249011338 0.835276544094085693 201 192 170
0.00978961773216724396 0.00011459965753601864 0.164779946208000183 213 42 197
0.0919269919395446777 9.14567062864080071e-05 0.113398157060146332 146 161 146
0.0917902737855911255 0.000225500480155460536 0.886687397956848145 201 192 170
0.118714071810245514 0.000163218937814235687 0.554254531860351562 184 115 17
0.296205312013626099 0.000152624619659036398 0.670648455619812012 184 115 17
0.174279093742370605 0.000194570340681821108 0.790725469589233398 184 115 17
0.174381867051124573 9.38001612666994333e-05 0.209389254450798035 146 161 146
0.153404742479324341 0.000231041747611016035 0.98028564453125 201 192 170
0.153574556112289429 6.45526815787889063e-05 0.0198217332363128662 146 161 146
0.448711305856704712 0.000121392607979942113 0.642974317073822021 184 115 17
0.194228991866111755 7.35005305614322424e-05 0.112112022936344147 146 161 146
0.194091811776161194 0.000207996461540460587 0.88800966739654541 184 115 17
0.179844319820404053 0.00012048903590766713 0.36884617805480957 146 161 146
0.465132623910903931 6.70547160552814603e-05 0.345871567726135254 184 115 17
0.227684959769248962 0.000145986559800803661 0.563814699649810791 184 115 17
0.251558154821395874 0.253876626491546631 0.000143016412039287388 169 243 228
0.252471625804901123 0.569903016090393066 8.83971588336862624e-05 169 243 228
0.176244199275970459 0.411354124546051025 0.000102403566415887326 169 243 228
0.341396093368530273 0.39363861083984375 0.000134672882268205285 169 243 228
0.148544996976852417 0.674399495124816895 5.19095046911388636e-05 195 66 119
0.359408825635910034 0.674068808555603027 8.92470707185566425e-05 113 159 83
0.357346624135971069 0.146221116185188293 0.000180380840902216733 238 50 164
0.146453782916069031 0.147958874702453613 0.000142794233397580683 169 243 228
0.375168383121490479 0.520448446273803711 0.000118662232125643641 113 159 83
0.12951958179473877 0.532300889492034912 7.31775653548538685e-05 113 159 83
0.130584895610809326 0.291058987379074097 0.000115183349407743663 169 243 228
0.380825012922286987 0.273066073656082153 0.000162544150953181088 150 40 201
0.249907881021499634 0.710073888301849365 6.36463446426205337e-05 113 159 83
0.256972253322601318 0.112252503633499146 0.000168523081811144948 169 243 228
0.265177339315414429 0.467030197381973267 0.000108475716842804104 169 243 228
0.253031700849533081 0.350878268480300903 0.000126462444313801825 169 243 228
0.0913487151265144348 0.44770282506942749 8.10934725450351834e-05 169 243 228
0.412617266178131104 0.603136181831359863 0.000110949826193973422 113 159 83
0.415031880140304565 0.439206600189208984 0.000139792653499171138 150 40 201
0.0901675447821617126 0.211855873465538025 0.000121766905067488551 169 243 228
0.0902252942323684692 0.611377537250518799 5.25230861967429519e-05 237 138 223
0.419683218002319336 0.354262888431549072 0.000155339352204464376 150 40 201
0.419193536043167114 0.733444035053253174 8.95246266736648977e-05 113 159 83
0.0871032774448394775 0.735877096652984619 3.03900778817478567e-05 195 66 119
0.419604331254959106 0.086804412305355072 0.000201687289518304169 238 50 164
0.0869907736778259277 0.0868620574474334717 0.000142871984280645847 169 243 228
0.0856076329946517944 0.363290607929229736 9.47106746025383472e-05 169 243 228
0.421808511018753052 0.201189339160919189 0.000182249219506047666 150 40 201
0.332309991121292114 0.595447957515716553 9.8084383353125304e-05 113 159 83
0.175913959741592407 0.598498880863189697 6.99050651746802032e-05 113 159 83
0.176680654287338257 0.22345985472202301 0.000135050766402855515 169 243 228
0.287141174077987671 0.1821088045835495 0.00016174781194422394 169 243 228
0.183336406946182251 0.744401395320892334 4.59262482763733715e-05 195 66 119
0.322739928960800171 0.744094908237457275 7.06255959812551737e-05 113 159 83
0.184823036193847656 0.0784938931465148926 0.00016161905659828335 169 243 228
0.324058979749679565 0.0780115947127342224 0.000186319259228184819 169 243 228
0.203484073281288147 0.51121896505355835 8.99087026482447982e-05 169 243 228
0.310159265995025635 0.302991330623626709 0.000144863297464326024 169 243 228
0.276604235172271729 0.641862869262695312 8.01900605438277125e-05 113 159 83
0.18136848509311676 0.340373456478118896 0.000115613482194021344 169 243 228
0.305402606725692749 0.522989153861999512 0.000105887389509007335 169 243 228
0.436806380748748779 0.667948007583618164 0.000103991769719868898 113 159 83
0.339346140623092651 0.464005351066589355 0.000122112920507788658 169 243 228
0.21953137218952179 0.170755356550216675 0.000151762593304738402 169 243 228
0.345611900091171265 0.214947566390037537 0.00016639295790810138 169 243 228
0.439329773187637329 0.539739727973937988 0.000126661820104345679 150 40 201
0.0667771473526954651 0.510527729988098145 6.58590506645850837e-05 113 159 83
0.0676566138863563538 0.150158584117889404 0.000128481769934296608 169 243 228
0.067747168242931366 0.672587215900421143 3.79387747670989484e-05 195 66 119
0.0655391812324523926 0.274956107139587402 0.000106474726635497063 169 243 228
0.212517097592353821 0.660065233707427979 6.57043565297499299e-05 113 159 83
0.442124813795089722 0.294174313545227051 0.000169722872669808567 150 40 201
0.149154976010322571 0.471605211496353149 8.71701849973760545e-05 169 243 228
0.444054961204528809 0.142438605427742004 0.000196366338059306145 150 40 201
0.238008081912994385 0.409516990184783936 0.000113641726784408092 169 243 228
0.199293255805969238 0.281303852796554565 0.00012902180606033653 169 243 228
0.363105922937393188 0.33841976523399353 0.000148082894156686962 169 243 228
0.235602691769599915 0.7657204270362854 5.14713246957398951e-05 195 66 119
0.236028090119361877 0.0563022121787071228 0.00017451874737162143 169 243 228
0.303940415382385254 0.687653899192810059 7.70855112932622433e-05 113 159 83
0.450601935386657715 0.488562643527984619 0.000137525872560217977 150 40 201
0.0555059574544429779 0.564949095249176025 5.44328104297164828e-05 113 159 83
0.450919985771179199 0.39726024866104126 0.000153408676851540804 150 40 201
0.132361412048339844 0.767597019672393799 3.28932073898613453e-05 195 66 119
0.132237911224365234 0.0551264137029647827 0.000156372698256745934 169 243 228
0.375934988260269165 0.76656806468963623 7.61348201194778085e-05 113 159 83
0.375811845064163208 0.0560709796845912933 0.000199272282770834863 238 50 164
0.304775834083557129 0.12800028920173645 0.000174244880327023566 169 243 228
0.2094077467918396 0.456254631280899048 0.000100483637652359903 169 243 228
0.292011111974716187 0.41809535026550293 0.000121702345495577902 169 243 228
0.0551449805498123169 0.406896084547042847 8.17662657937034965e-05 169 243 228
0.122434228658676147 0.402947038412094116 9.4347393314819783e-05 169 243 228
0.306388735771179199 0.249433279037475586 0.000153480563312768936 169 243 228
0.304548144340515137 0.35362127423286438 0.000135094946017488837 169 243 228
0.454693585634231567 0.244584858417510986 0.000180540955625474453 150 40 201
0.0524965636432170868 0.323188155889511108 9.58081582211889327e-05 169 243 228
0.390382826328277588 0.396428763866424561 0.000142849967232905328 150 40 201
0.254082858562469482 0.518042325973510742 9.76716764853335917e-05 169 243 228
0.0495042838156223297 0.774061381816864014 1.71237134054536e-05 195 66 119
0.455748677253723145 0.771820902824401855 8.93351534614339471e-05 113 159 83
0.45562368631362915 0.0507904849946498871 0.000214298153878189623 229 13 92
0.0493785478174686432 0.0486908368766307831 0.000142838922329246998 169 243 228
0.13116803765296936 0.341620534658432007 0.000106521983980201185 169 243 228
0.226143181324005127 0.612220585346221924 7.64069191063754261e-05 113 159 83
0.194228515028953552 0.127110660076141357 0.000154854584252461791 169 243 228
0.375661492347717285 0.571146488189697266 0.000109961292764637619 113 159 83
0.132577851414680481 0.624891817569732666 5.76683269173372537e-05 113 159 83
0.138000339269638062 0.195365101099014282 0.000133082183310762048 169 243 228
0.370492100715637207 0.628275275230407715 9.91445194813422859e-05 113 159 83
